x	y	z
273.5	156.375	37.25
217.0	303.5	9.7890625
274.5	20.328125	145.875
180.0	30.171875	160.125
171.25	103.0	111.1875
164.0	346.75	59.75
448.25	314.75	8.796875
492.5	468.0	173.375
250.625	500.5	34.78125
142.5	229.875	51.15625
207.5	309.75	36.0
348.0	391.25	62.09375
417.0	54.4375	107.75
344.75	368.25	14.296875
125.5625	418.25	22.75
305.25	72.8125	35.875
250.25	274.75	63.28125
244.5	241.0	103.5
195.625	66.875	113.125
342.25	398.25	68.8125
386.0	298.75	17.21875
389.75	133.75	12.1171875
38.40625	309.75	160.0
434.5	181.625	18.734375
199.5	486.0	80.75
501.75	148.75	74.25
47.03125	500.75	75.25
17.40625	321.5	11.8515625
488.25	378.75	88.25
241.75	221.125	107.625
10.3828125	64.125	104.5
337.5	216.625	54.6875
495.5	373.25	7.58203125
229.125	272.0	18.703125
235.5	235.625	15.2109375
331.75	231.25	111.125
178.625	44.90625	117.6875
342.0	266.0	85.9375
235.625	247.0	16.1875
426.5	84.0625	80.6875
234.375	489.75	43.625
11.0078125	96.25	57.625
488.75	283.0	92.625
499.25	231.75	55.65625
490.5	70.0625	15.375
436.5	278.25	21.546875
140.625	200.875	62.96875
499.25	443.0	37.15625
267.75	372.75	106.625
38.59375	463.5	6.53125
16.484375	494.75	28.046875
474.0	413.0	72.8125
180.75	104.8125	117.625
411.5	168.125	31.578125
500.5	118.75	113.4375
244.0	236.375	83.0
187.0	77.875	128.375
224.75	333.75	27.09375
209.25	406.75	165.5
223.5	95.625	97.8125
285.5	18.25	143.875
102.0	20.28125	17.28125
358.5	287.75	75.1875
395.5	131.625	60.90625
214.25	380.25	41.5
243.25	95.3125	115.5
492.25	205.625	129.75
413.75	176.375	40.125
83.625	146.25	57.78125
216.5	331.25	34.90625
292.0	18.796875	214.625
297.75	65.6875	109.1875
141.0	260.75	56.40625
134.125	411.25	22.6875
101.0	116.25	99.0625
316.25	252.125	256.0
500.5	282.25	34.65625
199.0	75.625	74.0
286.25	68.75	47.78125
229.375	257.75	80.75
448.5	34.0625	152.625
29.5	308.75	33.6875
420.5	123.75	56.59375
235.375	146.125	129.75
220.5	113.0	105.5
35.4375	41.6875	19.453125
73.5	364.25	25.0625
301.0	378.0	113.25
372.5	64.9375	190.625
466.75	292.0	30.484375
377.5	403.75	25.21875
241.125	498.25	30.578125
374.25	98.875	241.875
236.125	247.25	107.75
258.25	138.0	166.875
284.75	150.75	169.0
324.5	208.25	78.375
313.25	34.3125	127.6875
118.6875	370.25	7.640625
312.75	442.0	117.6875
394.0	396.25	51.15625
267.25	135.5	116.4375
446.25	285.25	31.59375
367.75	48.96875	202.75
216.625	292.0	19.515625
272.0	16.078125	119.625
96.875	490.25	210.125
411.75	33.0625	104.625
431.25	48.78125	105.875
97.5	35.78125	61.96875
111.375	498.75	14.296875
357.5	20.796875	64.3125
142.375	348.0	91.6875
131.75	219.125	20.625
476.5	499.25	42.4375
283.75	122.9375	128.625
230.5	170.875	47.8125
344.5	222.0	94.6875
193.375	86.625	102.25
248.625	24.890625	47.90625
290.0	469.0	67.5625
133.0	409.25	44.46875
482.75	499.0	192.875
207.375	477.25	33.9375
439.25	14.9765625	64.1875
254.375	96.9375	90.5625
67.375	503.5	9.828125
494.0	288.25	26.28125
475.75	259.25	33.6875
276.25	125.0625	47.0
215.5	34.84375	10.703125
119.375	192.125	29.21875
235.625	456.75	24.953125
464.5	201.25	50.96875
482.25	115.875	75.25
118.25	495.25	50.25
266.25	7.7421875	112.375
317.75	90.75	158.875
310.75	418.75	40.21875
324.0	443.0	27.078125
105.375	49.78125	27.484375
123.9375	228.125	54.625
114.0625	108.9375	148.25
44.1875	467.25	64.1875
300.75	136.375	50.34375
436.5	139.125	21.59375
414.25	18.609375	151.5
319.5	230.125	100.25
145.0	225.75	173.25
374.75	151.25	8.734375
196.875	33.03125	62.25
286.5	74.875	24.921875
247.5	266.5	17.671875
114.8125	22.078125	41.28125
284.75	26.25	135.0
7.45703125	320.5	9.703125
197.75	462.0	135.25
155.0	387.25	42.65625
11.46875	292.25	22.984375
275.25	22.59375	59.8125
253.75	452.0	25.1875
185.5	24.1875	88.125
117.8125	49.6875	152.375
265.25	359.75	142.625
328.75	179.25	89.375
248.875	33.1875	152.75
142.125	144.0	12.9765625
21.203125	64.875	91.625
402.5	27.984375	108.6875
502.75	110.3125	121.9375
307.75	79.0	70.0
236.75	87.1875	98.9375
407.0	177.125	114.375
354.75	314.25	60.84375
348.5	502.75	90.5625
45.28125	17.6875	16.34375
357.25	496.0	73.25
101.25	460.25	171.125
17.765625	298.0	151.5
354.0	356.25	42.5
505.0	232.125	29.265625
359.5	124.3125	60.03125
440.0	189.875	12.0859375
318.75	182.875	56.625
10.0	44.25	106.6875
266.5	409.75	135.0
174.625	400.75	33.59375
55.46875	13.8046875	16.421875
445.0	427.75	104.5
372.75	113.25	49.09375
336.75	50.15625	116.5
34.59375	501.0	65.25
151.5	277.25	55.375
329.75	314.25	76.3125
284.75	38.71875	51.125
185.375	63.53125	113.3125
433.5	159.25	18.375
493.25	50.1875	125.25
340.75	312.0	78.3125
317.25	408.25	50.15625
8.484375	143.125	216.875
446.5	371.0	78.3125
364.5	122.25	70.8125
219.5	216.0	18.484375
82.25	24.0625	10.8984375
64.3125	488.75	17.234375
145.375	341.5	70.625
342.5	242.25	76.375
90.8125	58.15625	164.5
225.25	236.125	9.984375
269.5	10.7421875	150.25
301.0	113.3125	68.6875
338.5	131.625	29.46875
270.0	12.9609375	62.03125
14.5625	311.25	7.68359375
402.5	79.9375	97.0625
351.25	235.125	79.375
228.5	247.0	76.4375
401.25	254.75	88.25
134.25	213.0	30.734375
214.25	93.875	72.875
210.875	88.9375	83.9375
441.75	300.25	26.0
467.5	44.75	34.75
102.5625	337.0	52.15625
426.5	64.0625	93.4375
58.96875	310.0	143.875
407.75	54.59375	100.3125
398.0	10.453125	144.875
82.4375	162.125	105.625
164.75	445.0	101.25
180.5	470.75	47.875
104.6875	478.0	202.875
264.25	24.109375	224.25
115.0	177.625	36.09375
143.625	56.0625	189.5
297.5	10.2265625	74.25
238.75	258.25	60.03125
137.5	267.0	35.78125
5.43359375	325.75	31.59375
264.25	11.2578125	72.0
6.15234375	415.0	117.5
127.75	430.0	20.734375
315.75	19.875	99.3125
102.375	63.9375	173.375
487.75	40.3125	141.5
279.5	106.6875	151.375
461.5	440.75	117.75
113.5	374.0	31.40625
208.25	230.875	114.3125
293.5	50.03125	132.75
259.25	281.25	104.5625
317.5	451.75	114.375
411.25	277.0	59.84375
123.75	27.015625	73.9375
273.0	164.75	71.875
329.25	9.1484375	104.75
347.75	189.5	76.125
103.125	9.7109375	76.25
250.5	489.75	76.125
501.75	452.25	7.78125
213.125	223.125	90.3125
334.5	299.75	63.125
151.5	234.0	55.53125
485.0	351.25	20.828125
441.25	323.25	62.28125
290.0	171.75	9.9140625
204.5	478.0	51.15625
248.75	263.25	59.90625
392.0	318.0	10.6953125
414.0	170.375	53.375
466.25	493.0	25.046875
395.5	456.25	99.1875
173.625	105.625	67.5625
124.5625	22.15625	46.9375
87.625	115.25	7.60546875
259.25	220.0	104.75
206.25	236.0	103.5
341.5	491.25	100.0
280.25	178.75	99.3125
441.25	431.75	43.53125
178.0	31.109375	62.25
300.25	43.71875	32.875
328.25	411.0	14.0234375
301.75	486.25	96.75
433.0	72.6875	190.75
26.234375	228.0	16.328125
132.875	243.625	35.9375
421.25	89.0	90.25
275.0	234.625	96.75
352.0	54.0	60.9375
139.875	117.8125	89.5625
414.25	168.125	117.4375
427.75	152.75	59.90625
238.0	351.25	125.4375
299.75	407.0	26.40625
333.25	44.15625	82.6875
409.0	164.75	97.0625
411.25	129.25	58.71875
468.5	472.0	31.71875
317.0	162.625	31.59375
32.125	490.25	201.625
296.25	85.4375	114.25
305.5	447.75	60.9375
329.75	33.15625	83.0
247.125	17.1875	106.8125
389.5	448.0	48.96875
249.875	171.875	123.1875
410.5	434.5	31.625
36.1875	381.0	182.875
292.5	125.5625	135.25
441.25	349.75	20.6875
496.25	372.25	53.1875
376.0	413.5	31.796875
443.0	156.375	31.671875
119.3125	247.25	49.15625
334.5	400.0	59.90625
433.5	198.375	81.5625
252.5	375.0	146.0
244.5	100.5	93.5625
70.0625	10.796875	45.65625
228.25	257.0	54.46875
183.0	49.96875	71.6875
250.0	301.75	29.5625
392.25	428.5	35.9375
86.5625	20.625	150.25
9.6796875	46.125	94.875
285.5	478.25	72.875
156.25	226.625	37.09375
146.5	40.25	176.625
7.3359375	434.0	104.4375
331.25	160.875	45.78125
272.75	106.6875	86.25
258.5	196.875	73.9375
152.5	186.0	50.09375
142.125	183.25	23.984375
228.875	234.625	93.75
28.59375	204.625	147.125
309.75	408.75	70.875
240.125	320.0	33.75
372.5	121.75	28.28125
328.5	471.75	139.25
259.75	354.0	124.25
306.0	301.0	85.0
316.25	328.25	94.9375
252.625	25.3125	114.1875
455.5	130.875	115.4375
92.875	153.0	70.6875
402.75	123.25	63.3125
228.0	324.75	19.625
176.0	433.0	117.875
329.0	407.0	66.5
116.4375	11.6796875	100.0
67.375	49.75	9.796875
253.5	5.8359375	127.625
290.0	426.0	7.62109375
166.25	242.125	29.421875
273.75	27.90625	136.0
43.28125	500.0	7.4921875
112.5	9.71875	82.5625
49.125	491.25	13.03125
440.5	38.0625	56.6875
32.40625	495.5	167.75
317.0	427.75	38.25
201.0	21.984375	61.09375
491.5	5.79296875	214.375
214.375	242.875	81.8125
104.0	322.0	80.4375
284.0	477.0	61.0625
160.375	331.0	81.9375
309.5	264.0	75.3125
75.625	23.28125	91.3125
284.0	105.0625	167.875
393.5	120.6875	56.8125
317.5	115.375	129.75
103.25	13.0859375	27.25
248.875	250.75	76.3125
353.0	144.125	35.71875
248.875	372.75	107.9375
165.125	39.28125	144.0
343.75	27.703125	182.875
169.75	342.0	68.5
269.75	94.8125	63.125
393.0	299.5	37.15625
51.53125	298.0	25.09375
213.5	416.0	160.125
372.0	205.0	80.8125
388.75	140.375	57.9375
24.734375	350.0	117.75
129.5	326.75	48.96875
162.25	327.75	71.0
346.5	48.0	42.59375
412.75	216.875	30.390625
391.25	439.0	30.625
181.25	101.625	105.875
384.5	24.46875	164.625
430.0	37.96875	29.515625
65.375	503.0	82.8125
386.5	21.125	141.875
6.62890625	376.25	8.59375
141.625	188.125	46.90625
331.0	190.25	85.9375
381.0	477.0	109.9375
277.5	8.8046875	223.5
308.25	124.625	101.5
96.3125	368.0	57.90625
387.75	331.0	7.69921875
213.125	118.3125	115.375
140.125	19.84375	42.375
344.0	161.125	64.4375
218.0	7.87109375	145.125
395.75	452.0	88.25
340.5	266.25	37.125
329.25	300.0	113.375
415.75	155.75	100.4375
8.90625	386.0	33.71875
344.75	301.0	75.25
29.0	335.75	125.125
425.75	168.75	65.375
165.5	230.625	41.40625
340.5	231.125	80.5
169.375	186.0	23.0
95.875	135.0	104.75
94.0	229.125	19.53125
201.75	212.375	13.0703125
320.0	75.6875	120.8125
258.5	481.75	75.3125
336.75	308.0	55.5625
440.0	271.25	50.03125
300.0	409.75	66.3125
249.375	88.75	107.875
221.375	491.0	70.8125
257.5	27.34375	54.40625
220.75	19.25	93.5625
259.25	23.71875	213.375
488.5	247.25	147.0
338.75	220.125	84.875
191.75	98.875	38.03125
145.625	103.6875	89.4375
107.5	117.875	89.375
439.5	41.78125	103.5
87.6875	142.25	107.9375
421.25	69.0	101.4375
351.75	160.875	86.1875
107.75	7.10546875	65.3125
411.75	96.8125	202.625
243.25	232.25	111.125
154.5	248.0	97.9375
494.5	86.1875	86.25
68.5	487.0	108.125
338.5	233.375	69.5625
411.5	36.5	136.125
24.953125	98.0	106.8125
187.5	35.375	90.25
57.46875	263.25	160.0
323.5	14.3515625	115.25
281.5	386.5	109.0625
30.921875	256.75	174.125
307.0	155.125	55.5625
355.25	137.875	45.59375
90.375	142.0	67.5
290.25	95.0	130.875
12.3515625	217.625	111.0
337.25	60.09375	59.0
235.125	51.125	103.5625
260.75	143.625	156.0
50.4375	492.25	57.625
279.0	137.0	44.59375
495.25	14.8359375	190.625
293.25	25.390625	29.40625
268.75	11.65625	139.375
341.5	207.25	68.625
414.5	166.75	64.4375
126.875	504.75	30.375
501.75	415.75	87.125
321.25	97.8125	52.34375
229.125	7.47265625	116.5
267.0	458.0	117.8125
311.75	321.25	123.0
161.0	235.625	69.75
304.25	73.5	47.8125
344.5	387.25	73.0
407.5	50.0	111.3125
22.359375	461.25	204.875
315.0	282.75	105.75
10.3984375	213.25	174.375
24.015625	389.0	57.875
194.5	26.046875	93.8125
8.3828125	274.75	244.125
425.75	53.96875	114.625
410.25	19.9375	106.5
132.75	363.75	55.78125
89.6875	6.98046875	52.375
369.25	137.625	26.203125
357.0	84.625	198.25
442.75	137.0	66.3125
493.75	312.75	18.359375
190.625	67.6875	90.375
19.375	285.0	115.6875
14.5390625	505.0	61.1875
398.25	201.125	7.66796875
312.5	186.875	65.4375
224.0	59.15625	84.0
7.22265625	301.75	253.75
286.5	83.25	119.8125
271.75	90.1875	130.625
282.0	396.75	127.5
491.75	7.1640625	39.21875
503.25	183.375	26.171875
320.5	144.125	65.25
424.75	172.25	53.53125
428.5	233.0	50.125
278.5	472.0	46.0
149.75	434.0	7.6015625
275.0	258.5	89.5
334.75	64.0625	131.875
198.5	486.0	193.0
474.0	389.75	188.625
418.75	291.75	139.25
451.5	351.75	25.171875
13.5625	267.75	218.75
408.75	457.0	73.0
207.75	359.0	16.453125
337.5	94.625	136.125
181.75	204.75	19.765625
254.75	257.0	36.875
306.75	63.65625	138.25
310.5	273.5	81.5625
86.375	18.828125	70.8125
327.5	222.75	103.6875
443.25	278.25	40.375
243.625	20.5625	118.8125
263.5	459.0	66.3125
363.5	119.875	50.0
374.25	397.25	35.09375
269.0	28.890625	214.375
164.5	499.75	216.625
277.0	388.75	120.75
293.25	393.75	152.625
257.75	17.84375	45.875
374.25	238.375	53.3125
278.0	399.0	138.125
435.5	187.125	115.5625
6.953125	258.75	217.0
316.75	76.125	87.1875
93.6875	233.875	8.6171875
326.0	225.125	92.5
302.25	366.5	44.65625
225.125	182.625	128.5
344.5	381.0	26.0
191.875	208.375	16.5625
403.75	164.75	64.4375
103.5625	127.125	102.375
420.0	239.875	77.5
241.125	23.265625	194.125
172.25	99.625	99.25
432.5	197.625	14.0390625
421.0	64.0625	112.4375
394.5	291.25	13.2421875
10.96875	114.3125	69.625
96.5625	210.375	10.921875
91.75	358.75	53.28125
383.25	33.75	157.75
252.5	148.75	77.1875
455.75	464.0	217.875
494.25	500.0	51.375
361.75	11.171875	189.625
318.0	455.0	135.125
91.8125	354.75	73.1875
105.9375	18.859375	82.9375
490.5	104.75	79.4375
252.375	86.0625	73.125
118.0	398.0	38.15625
283.5	48.0625	139.25
234.375	248.75	87.125
220.875	21.796875	82.6875
407.0	427.0	41.34375
24.921875	115.25	94.75
281.75	375.0	112.25
492.25	426.0	218.0
84.5	453.25	102.375
405.0	26.390625	125.375
103.25	136.75	75.0
231.875	218.25	90.4375
349.5	8.0	8.6171875
186.75	42.9375	80.4375
495.5	28.109375	21.90625
255.875	399.75	155.625
421.75	426.0	45.96875
184.25	79.6875	74.1875
410.5	236.25	64.125
388.75	45.6875	108.75
175.125	179.875	15.1484375
111.125	148.875	68.5625
301.75	77.125	120.875
376.0	150.75	75.0
262.5	261.0	105.875
472.0	13.3203125	46.65625
203.375	461.5	89.5
59.71875	487.0	145.125
485.5	356.0	10.8671875
421.25	79.0	95.6875
285.75	74.75	36.0
99.125	52.28125	58.59375
430.25	137.125	54.375
252.75	485.0	41.375
233.375	287.25	52.21875
383.25	232.375	51.28125
349.75	499.0	101.375
72.5	144.0	95.875
75.5	10.0625	23.890625
391.25	148.25	73.0
21.09375	334.0	142.75
78.6875	138.75	87.0625
374.5	246.75	61.96875
59.8125	374.5	36.09375
269.75	110.8125	146.125
70.5	133.0	92.5
90.1875	473.75	176.375
36.28125	190.5	79.5625
254.5	310.25	22.9375
291.5	372.75	117.5
25.25	488.25	27.296875
333.5	315.75	46.84375
20.5625	125.125	97.125
219.75	371.0	8.8125
282.25	154.0	68.8125
266.5	137.25	147.25
228.25	403.25	163.375
165.5	496.75	15.2109375
323.75	81.75	141.625
289.0	501.0	49.21875
434.25	172.625	123.3125
98.5625	134.75	64.4375
133.375	138.0	82.5625
420.5	32.875	111.3125
114.375	147.25	84.875
54.6875	468.25	185.375
286.75	404.75	135.0
342.5	85.6875	130.875
230.0	12.828125	92.5625
403.5	168.125	53.46875
471.25	383.0	8.7421875
403.5	35.375	117.6875
432.0	57.28125	216.875
304.0	168.25	86.25
69.25	11.734375	67.5
215.875	192.125	44.5625
195.0	142.375	132.75
143.5	204.25	6.67578125
383.5	224.0	43.53125
154.375	34.84375	163.625
6.046875	72.1875	111.1875
223.75	206.75	45.71875
307.5	118.9375	124.1875
338.5	372.75	51.3125
293.75	60.59375	99.0625
271.75	406.0	145.0
231.125	272.0	180.75
338.25	30.203125	99.375
413.5	171.875	105.8125
228.5	326.25	49.0
344.25	362.0	42.46875
499.25	103.125	60.78125
78.125	37.375	173.25
109.4375	480.25	60.96875
235.125	190.25	45.6875
146.875	406.75	7.62890625
126.4375	38.8125	43.6875
226.625	246.25	131.75
384.25	228.375	94.625
345.75	178.625	79.5625
258.5	367.25	110.9375
137.625	224.625	41.40625
424.5	437.0	48.125
208.625	232.25	83.875
431.75	163.25	56.78125
306.0	380.25	59.03125
145.875	365.25	70.5625
267.75	196.25	67.5
199.625	128.25	104.5625
300.5	313.25	107.75
183.125	138.875	102.25
502.0	243.25	129.75
219.5	304.25	49.96875
251.625	143.875	136.125
28.609375	261.75	112.25
252.25	293.5	11.84375
310.5	140.875	46.875
112.6875	36.59375	20.8125
276.5	111.875	96.6875
468.0	234.125	45.5625
277.5	239.5	137.125
241.375	261.25	101.375
198.375	473.25	69.75
75.625	375.25	97.9375
51.75	277.75	109.125
238.625	26.296875	96.875
276.0	107.125	118.625
374.0	249.75	50.09375
29.34375	211.75	26.28125
110.125	41.40625	154.625
346.0	371.0	60.03125
93.5	371.0	68.8125
195.375	315.25	117.5625
302.5	158.0	66.5625
315.75	147.0	76.3125
25.734375	118.75	105.6875
29.265625	485.5	16.125
381.5	109.9375	195.125
419.0	40.15625	69.625
202.25	503.75	189.625
325.75	151.875	73.875
283.5	150.25	52.28125
215.5	312.0	28.28125
207.25	308.25	7.4453125
10.84375	170.75	80.5
137.125	211.25	149.375
113.375	394.0	8.6171875
11.8671875	497.75	38.1875
453.75	42.0625	11.921875
9.90625	428.5	181.75
273.25	70.5625	126.25
410.5	228.125	55.71875
76.75	44.3125	191.75
161.875	54.71875	157.875
199.125	477.25	101.1875
32.59375	504.0	228.75
333.5	503.75	88.3125
316.5	115.1875	141.5
258.25	33.65625	120.875
226.0	242.0	108.0
177.75	75.8125	121.125
420.5	279.25	6.609375
344.0	304.75	87.1875
30.9375	63.40625	18.578125
175.125	204.125	29.5625
110.75	136.125	101.5
346.0	122.625	12.046875
202.625	189.0	59.71875
162.0	335.75	62.28125
305.5	87.6875	108.0625
183.5	90.375	71.875
160.5	339.0	73.125
131.75	397.75	45.84375
277.75	137.75	114.375
352.5	395.0	72.0
339.25	158.0	146.0
241.0	23.296875	206.0
337.5	54.71875	82.5625
319.25	71.125	153.75
415.25	284.5	51.03125
211.5	427.5	13.046875
358.5	300.0	46.9375
503.0	401.0	93.6875
9.078125	100.9375	116.5
76.75	147.75	79.5625
190.125	73.5625	66.625
360.25	36.9375	269.25
275.5	101.25	140.75
95.125	143.875	77.5
337.5	292.25	71.75
309.25	59.5	65.625
71.5625	126.1875	72.8125
457.25	68.6875	31.484375
154.375	135.75	193.875
483.75	469.25	219.0
339.75	56.0625	150.375
460.0	399.75	110.0
411.75	64.3125	105.5
52.09375	60.6875	194.0
153.875	424.25	13.0546875
296.5	338.0	117.8125
68.1875	479.5	167.625
154.125	227.75	66.1875
76.0625	56.78125	176.75
90.375	98.25	137.125
432.5	183.25	89.4375
115.0	249.25	71.0
320.25	8.265625	44.65625
361.75	355.5	24.09375
105.0625	339.25	69.625
45.5	392.25	65.25
23.203125	87.0	160.25
313.5	263.25	85.875
342.5	86.625	142.625
110.9375	114.1875	119.9375
410.0	242.125	40.3125
271.0	115.25	112.25
467.75	270.25	28.265625
281.0	92.625	136.25
395.25	135.75	49.28125
301.75	419.75	47.8125
9.8984375	109.875	109.875
156.625	246.25	69.75
297.0	19.546875	83.75
321.5	281.25	95.9375
371.0	129.25	77.4375
174.25	162.125	252.75
409.0	183.25	145.875
191.5	24.859375	56.625
397.5	496.0	114.375
212.625	236.0	72.8125
32.75	32.4375	11.9296875
18.671875	504.25	144.875
345.5	139.875	65.25
101.8125	37.84375	90.5
138.375	266.75	46.65625
107.875	138.125	85.0
394.25	52.15625	196.125
49.09375	255.75	136.375
211.875	14.2578125	152.625
138.75	45.0	169.875
347.5	305.75	57.5625
102.0	480.25	110.0
158.125	230.125	154.875
35.65625	484.25	77.1875
220.125	14.0625	117.5
334.75	269.5	54.40625
308.75	435.0	35.90625
293.25	125.1875	123.1875
452.0	303.75	25.984375
161.5	400.25	20.515625
17.046875	188.0	241.75
14.5234375	500.75	11.171875
501.0	137.25	70.9375
195.25	496.5	81.625
273.0	391.25	130.75
108.4375	70.0625	165.625
252.375	341.75	51.15625
335.5	168.25	62.0
187.625	92.625	109.9375
290.5	313.0	112.125
91.5625	76.3125	205.875
127.1875	263.75	74.9375
300.25	96.375	113.1875
166.25	80.75	104.75
473.0	287.0	45.71875
165.625	260.0	18.625
496.5	68.6875	94.875
353.5	68.8125	131.875
478.25	7.66015625	163.375
268.5	262.75	115.6875
196.5	306.25	55.59375
231.625	314.5	133.0
448.25	38.0625	141.625
152.0	243.75	80.75
249.625	498.25	56.46875
293.75	31.84375	49.0625
99.625	125.8125	92.4375
228.625	192.125	122.0625
64.0625	503.25	43.65625
201.125	10.625	64.375
370.0	319.0	34.0
91.9375	79.1875	148.25
402.25	430.25	244.0
442.0	10.921875	216.875
178.0	93.375	91.5625
407.75	74.75	88.4375
439.5	145.0	32.5625
266.75	287.0	15.34375
146.625	238.25	162.375
416.5	49.71875	118.75
491.75	468.25	8.7578125
115.5625	228.875	23.8125
146.625	10.9765625	41.53125
141.5	414.75	13.9296875
262.5	389.75	131.625
139.125	397.25	54.625
324.75	194.75	93.875
21.1875	388.25	90.25
410.75	54.9375	127.625
281.0	467.5	74.1875
400.5	75.0625	123.25
262.25	155.0	194.0
420.25	432.5	27.140625
9.984375	330.0	73.125
315.0	56.78125	49.28125
100.0	358.25	44.84375
483.5	395.75	109.0625
168.875	462.0	69.625
138.375	113.875	8.703125
88.75	358.25	41.1875
186.5	432.75	115.375
212.75	26.671875	77.1875
235.625	265.75	75.0625
194.0	396.75	86.1875
221.0	53.65625	15.2734375
144.5	130.875	9.6796875
320.75	21.203125	54.71875
272.25	394.25	148.125
324.25	317.0	103.6875
224.125	212.875	96.0625
460.25	274.0	19.890625
490.5	27.5625	43.5625
501.25	147.25	28.453125
104.5625	25.9375	72.0625
434.0	83.6875	102.5625
133.125	494.5	28.40625
256.0	135.125	149.375
182.75	88.6875	130.625
207.5	25.828125	176.375
360.25	209.875	162.375
22.390625	501.75	53.53125
443.5	8.96875	206.0
322.75	310.0	83.9375
167.5	44.625	154.875
106.9375	14.984375	43.78125
432.0	186.875	77.4375
48.40625	480.75	9.6875
287.5	393.25	137.25
258.5	268.75	58.84375
246.875	34.28125	233.375
121.375	252.125	162.625
73.1875	13.671875	84.0625
285.25	103.1875	124.125
135.75	195.75	53.5
256.5	480.0	51.34375
224.25	243.75	88.0625
70.9375	494.25	59.96875
344.25	286.75	51.0625
463.0	288.25	51.0625
65.3125	465.0	181.875
212.5	504.75	81.625
244.375	7.8046875	134.125
121.4375	12.9765625	137.25
133.625	184.125	54.375
201.875	86.6875	77.25
238.5	328.0	52.3125
248.625	169.75	146.0
331.0	344.75	95.9375
242.875	359.25	132.0
192.625	162.25	46.6875
351.5	83.0625	177.75
492.25	131.0	74.1875
119.25	51.8125	139.375
368.75	7.3046875	163.625
259.75	23.125	202.5
374.0	241.25	41.5
51.71875	468.0	26.1875
28.734375	448.75	101.375
168.375	345.0	79.4375
320.25	145.625	44.5625
278.5	225.375	110.125
374.75	243.875	73.0625
36.4375	471.0	38.25
86.875	151.375	80.4375
107.0	35.90625	68.5
104.75	29.203125	24.03125
411.75	295.25	33.65625
393.25	31.796875	153.375
458.5	317.75	7.53515625
101.4375	16.359375	65.4375
279.25	238.125	85.875
356.5	211.125	20.546875
83.875	400.75	27.0625
285.25	7.86328125	95.0
464.0	280.25	11.125
401.5	221.25	54.53125
29.375	104.875	116.5
335.25	298.0	104.4375
215.5	218.0	100.375
11.453125	384.0	64.375
71.5	475.0	55.4375
433.25	294.0	8.7109375
225.625	219.625	105.75
99.8125	491.0	126.25
16.734375	233.875	17.28125
317.5	281.5	84.875
285.0	398.75	16.5625
227.25	305.5	12.140625
234.625	328.75	29.296875
351.0	395.25	51.0625
22.328125	469.25	146.875
300.5	245.75	59.75
390.0	483.5	106.75
332.5	207.375	100.125
251.375	25.875	64.4375
99.0	501.0	214.5
348.25	105.9375	15.2734375
309.75	64.75	42.59375
374.0	202.25	92.625
29.84375	468.75	28.515625
403.25	115.375	54.3125
298.75	116.125	118.5625
327.75	58.53125	77.125
396.5	84.875	105.875
245.75	15.9765625	66.375
75.125	468.75	171.25
418.5	159.25	34.84375
213.125	397.5	85.125
410.5	406.5	33.5625
418.0	295.25	52.4375
9.3125	396.0	128.5
214.625	19.09375	142.5
234.375	238.25	115.5625
155.375	499.25	232.125
347.75	220.125	54.46875
140.75	429.0	28.390625
31.21875	121.1875	32.78125
165.625	213.0	53.3125
295.75	388.5	115.4375
248.125	463.0	45.875
220.375	215.125	138.25
239.125	271.75	24.046875
129.25	55.75	161.5
440.25	27.890625	9.890625
352.0	279.25	70.9375
132.5	261.25	25.078125
166.875	418.75	97.9375
386.5	129.375	54.28125
349.0	274.0	89.4375
400.75	252.25	55.78125
244.5	43.5625	113.3125
304.5	419.0	71.9375
309.0	309.75	78.4375
26.625	190.25	107.875
115.4375	57.0	179.75
9.765625	333.0	93.875
270.75	273.0	32.84375
488.75	11.3828125	165.5
87.875	41.1875	175.625
341.0	285.25	80.625
159.0	334.25	92.6875
27.265625	34.96875	22.03125
11.328125	497.5	139.375
227.375	400.0	79.4375
150.5	416.25	32.75
499.25	246.375	111.0625
302.5	46.21875	149.125
153.5	504.25	51.0625
312.0	291.0	114.3125
409.75	250.875	48.15625
138.125	237.75	69.5625
157.5	419.75	23.984375
14.203125	96.125	95.8125
248.375	227.25	89.5
182.75	485.25	70.75
294.75	345.25	98.0
63.625	12.7578125	89.5
38.71875	285.75	17.453125
283.25	395.75	148.0
178.625	23.34375	72.8125
371.75	493.25	249.5
411.75	84.25	93.625
392.0	258.25	57.875
306.75	62.96875	126.4375
194.25	36.125	74.0
28.46875	91.25	28.265625
296.5	121.5	63.125
390.75	101.1875	210.125
94.1875	495.0	195.0
276.25	180.875	15.234375
121.625	379.25	15.296875
326.5	307.25	41.53125
263.5	375.25	116.75
489.25	375.25	17.453125
288.75	39.03125	214.75
182.625	52.25	109.9375
323.5	238.25	107.875
446.25	94.8125	170.0
45.59375	238.125	39.15625
379.5	483.25	118.9375
323.75	87.25	130.75
270.75	38.65625	208.0
34.6875	391.0	61.25
387.25	13.3984375	161.25
346.5	62.71875	66.25
111.125	40.84375	47.84375
327.0	295.0	69.875
413.5	140.25	63.09375
257.75	383.0	153.5
218.25	211.625	29.484375
219.125	392.75	76.5
277.0	400.25	117.6875
112.8125	145.375	56.8125
227.375	307.0	42.4375
229.125	204.0	123.25
44.625	460.0	104.75
135.25	309.0	140.625
350.0	504.75	74.0625
500.25	6.578125	56.84375
334.0	384.75	75.0625
475.5	436.0	222.125
33.46875	316.0	72.0625
399.0	161.25	44.59375
281.5	92.25	125.125
218.0	324.25	45.59375
357.5	84.6875	109.125
281.25	34.8125	191.875
274.0	126.75	123.0
49.78125	100.0625	63.34375
297.75	152.75	37.28125
496.25	236.75	117.6875
386.5	439.0	19.609375
450.0	212.375	95.6875
406.25	314.0	38.34375
462.0	481.5	31.59375
122.25	423.25	12.2265625
289.5	410.75	62.25
119.4375	141.25	65.5
267.5	386.25	141.625
188.375	410.0	8.6640625
114.4375	224.125	51.09375
415.25	69.625	121.75
308.25	42.84375	121.9375
405.5	437.0	48.9375
120.1875	251.875	21.75
86.4375	26.109375	27.390625
59.65625	217.0	9.8671875
132.125	201.625	32.5
155.125	215.25	49.1875
225.375	186.875	48.9375
411.25	152.375	79.5
279.0	268.75	58.9375
163.375	15.75	179.625
181.875	92.125	141.5
420.75	34.84375	131.875
337.25	425.75	46.875
225.625	254.375	91.6875
183.5	140.375	90.5625
159.375	191.125	20.8125
159.125	195.75	44.5625
443.75	274.75	29.65625
178.5	90.1875	103.5
339.25	196.625	72.8125
80.25	396.0	49.90625
468.25	325.0	18.328125
215.5	482.0	70.8125
238.5	12.3515625	112.0625
383.5	333.25	30.59375
329.25	467.75	150.5
417.0	487.0	189.625
439.0	31.84375	46.875
495.0	37.03125	48.75
308.75	178.125	56.625
193.875	450.25	182.0
29.5	493.0	71.9375
204.625	241.625	77.3125
282.75	407.0	144.875
244.875	79.0	79.3125
248.625	8.0	75.0625
352.0	105.75	161.25
404.25	161.125	76.25
76.5	26.125	20.703125
241.875	497.5	74.125
238.5	239.625	93.5
408.5	168.25	85.0625
105.5625	147.25	78.25
461.5	273.75	37.0625
490.75	107.1875	30.65625
59.25	386.0	35.0625
292.0	303.0	130.625
194.625	193.875	31.65625
330.25	288.0	79.375
317.0	459.25	123.25
356.25	223.25	105.5
366.0	111.6875	30.484375
130.5	416.0	11.984375
319.25	67.625	48.8125
269.75	61.8125	9.96875
135.5	179.125	43.625
241.75	33.90625	222.375
451.5	158.375	13.046875
347.5	58.65625	207.0
313.5	278.25	63.03125
485.25	254.75	59.9375
394.25	22.421875	160.375
293.0	174.375	196.125
359.5	344.75	27.296875
220.125	324.0	56.625
421.75	439.25	80.5625
365.25	243.125	49.0
278.75	398.75	92.5625
368.25	16.0625	171.125
218.5	187.625	120.75
343.75	167.875	83.75
412.75	18.71875	123.125
195.375	451.0	103.5625
290.0	84.0	163.5
267.5	275.75	99.1875
382.75	255.0	45.5625
87.5	349.25	48.09375
170.625	439.0	109.0625
313.25	8.1015625	88.25
462.75	35.09375	29.328125
80.5625	42.375	141.75
362.25	194.875	63.1875
405.5	18.84375	144.75
425.25	368.25	10.9453125
102.375	243.625	23.984375
86.125	60.65625	179.75
48.375	281.0	130.625
127.6875	170.625	27.421875
474.5	32.84375	57.875
276.75	81.75	137.125
327.5	269.0	73.125
279.5	189.25	120.0
298.5	439.0	62.03125
249.375	109.5625	99.125
231.375	230.875	73.125
305.5	88.125	119.75
437.75	163.125	46.96875
168.25	429.0	103.5
149.75	205.0	67.4375
158.625	268.25	54.25
443.75	338.0	18.546875
358.25	173.375	71.8125
291.0	402.25	124.125
401.75	213.0	45.78125
359.75	488.0	96.0
65.1875	311.0	102.5625
425.5	49.125	126.125
31.53125	183.375	39.34375
278.25	262.0	78.6875
263.25	223.25	93.8125
407.25	496.0	108.0625
325.5	152.75	52.28125
495.0	164.5	49.25
438.75	178.375	80.75
459.5	281.25	59.875
93.25	385.0	39.28125
158.5	239.375	90.375
216.0	98.0625	89.25
261.25	33.375	196.125
256.0	253.375	112.125
366.25	77.5625	76.5625
318.25	90.25	147.125
319.5	283.75	39.09375
432.5	154.0	29.203125
293.0	29.765625	220.125
100.6875	46.375	158.875
191.375	64.625	101.375
78.75	423.25	49.15625
261.0	124.875	88.3125
225.0	203.625	74.1875
425.25	191.75	86.0625
284.0	375.5	150.25
268.5	495.25	39.3125
427.0	181.125	120.875
241.25	218.625	69.5625
162.5	46.34375	66.4375
128.375	143.75	101.375
298.5	502.0	69.625
193.5	259.25	6.6484375
122.75	228.125	43.59375
35.21875	172.375	41.46875
347.5	55.125	32.75
183.375	47.0	59.96875
341.0	193.875	84.0
274.0	361.25	125.25
411.75	120.9375	49.15625
157.625	237.125	164.375
176.0	397.25	16.34375
6.54296875	335.25	63.03125
146.625	39.1875	155.875
171.375	21.875	64.1875
49.65625	221.125	12.890625
241.25	156.25	114.1875
78.5625	11.6484375	74.0625
139.25	194.25	36.96875
171.625	61.625	94.8125
335.75	399.25	25.234375
151.25	384.75	53.53125
149.375	222.75	55.625
121.1875	47.875	163.25
326.25	386.75	65.3125
13.1796875	204.0	101.3125
203.75	223.75	11.7734375
168.5	119.5625	99.1875
356.25	140.0	66.3125
428.0	156.375	48.09375
82.5625	13.7265625	90.5625
9.7578125	79.375	240.625
392.75	238.875	52.3125
240.25	91.625	88.125
162.875	242.125	79.5
307.0	311.0	98.125
403.0	307.25	47.90625
351.0	184.25	99.0
490.5	391.75	82.5625
368.25	493.75	132.875
264.5	124.1875	129.75
293.5	130.625	112.25
40.15625	457.25	23.875
495.75	22.75	33.65625
179.25	336.75	71.875
374.75	229.75	45.59375
227.0	389.0	110.125
334.75	225.375	61.96875
442.25	14.21875	250.5
462.75	475.75	58.90625
106.875	232.0	50.28125
497.5	26.578125	178.625
27.359375	415.75	174.375
241.625	223.125	118.6875
10.765625	232.5	40.125
200.125	215.125	34.9375
338.75	74.75	131.75
251.75	377.0	134.875
12.4375	456.75	140.625
440.5	48.125	34.9375
376.75	75.3125	195.0
476.75	35.0625	15.2109375
265.25	462.25	171.125
68.375	141.875	84.9375
313.0	469.25	127.375
291.0	9.28125	84.9375
294.75	176.25	65.25
100.6875	145.25	67.4375
331.5	268.25	83.9375
193.625	83.75	113.25
207.5	244.25	125.25
399.5	445.75	44.8125
45.40625	185.625	120.0625
103.625	320.0	63.25
183.875	465.0	188.625
175.125	82.9375	112.1875
265.5	99.25	147.0
500.5	23.40625	12.8828125
463.25	195.625	62.0625
360.5	178.125	49.125
411.5	59.875	116.5
410.0	89.1875	113.1875
341.75	24.921875	163.375
227.625	207.125	85.9375
348.25	77.875	138.25
109.8125	60.1875	26.046875
388.25	47.40625	120.75
250.625	474.25	43.4375
476.5	49.28125	30.515625
485.75	386.5	19.453125
9.4375	197.75	110.9375
78.5	158.875	82.75
186.625	98.625	87.1875
39.15625	253.0	186.25
32.25	101.1875	32.6875
163.125	228.375	89.5
403.25	302.75	36.125
95.8125	49.59375	20.828125
316.5	64.9375	120.875
260.0	275.25	68.5625
111.4375	492.75	30.640625
128.5	24.796875	63.125
170.125	223.0	22.96875
452.25	487.0	115.375
170.375	235.875	51.34375
135.5	130.75	118.75
383.5	243.75	48.0
483.0	140.875	57.65625
317.5	52.0625	38.1875
292.0	495.25	60.03125
18.453125	227.75	32.625
347.0	96.6875	130.875
306.75	338.25	113.3125
458.5	266.25	45.71875
150.5	90.0625	147.125
64.3125	468.25	170.125
47.3125	5.90625	31.6875
130.625	249.75	25.125
200.125	238.75	88.3125
90.375	327.0	74.0
71.625	255.625	20.453125
6.75390625	135.875	105.875
375.0	6.95703125	173.125
433.75	133.875	10.796875
289.25	80.5	71.0
498.0	104.75	98.1875
493.75	144.875	66.4375
348.5	316.75	70.625
28.8125	493.25	59.0
344.0	192.25	43.4375
161.125	493.25	198.375
257.25	390.75	246.375
355.5	294.75	66.375
313.5	104.25	129.75
361.75	137.0	35.90625
255.375	149.625	165.625
302.5	18.375	95.75
188.375	323.0	82.875
153.875	185.25	199.625
76.625	378.0	44.40625
440.25	150.25	21.640625
247.0	397.0	125.1875
262.0	391.25	159.125
279.0	132.75	182.125
438.75	484.0	27.203125
122.25	493.75	29.609375
125.8125	468.25	42.59375
499.75	372.5	18.65625
393.25	75.125	101.375
420.0	214.875	52.25
223.25	414.0	164.625
52.46875	101.8125	28.453125
150.5	234.0	43.6875
308.25	347.75	20.640625
129.75	220.75	48.84375
254.0	360.75	132.0
305.0	399.5	65.3125
416.5	186.25	91.5625
319.75	290.25	77.4375
98.75	353.0	82.75
392.25	166.625	53.3125
131.0	12.7578125	46.65625
283.5	377.0	138.375
111.625	59.25	168.875
30.953125	317.25	139.375
323.75	78.25	36.875
207.75	10.703125	143.625
151.375	30.21875	174.5
323.5	279.5	75.25
262.5	146.0	133.875
45.78125	170.5	45.9375
271.75	253.75	59.90625
485.5	407.25	91.625
236.25	500.5	41.15625
217.0	494.25	80.625
251.625	39.1875	223.25
317.75	81.0625	64.125
407.75	484.75	109.0625
180.125	467.0	178.75
306.75	104.4375	64.0625
294.75	394.75	51.0625
318.5	17.0	66.25
333.25	496.75	78.5625
207.875	409.25	142.625
58.5	219.875	131.0
358.75	308.75	98.0625
199.625	72.875	85.0
255.75	24.25	147.0
223.625	365.75	61.25
238.125	239.0	67.5
317.75	292.0	98.125
116.6875	137.875	91.625
270.75	233.625	107.75
420.5	27.828125	122.1875
234.625	213.625	101.5
263.25	146.25	173.375
344.25	66.0625	126.1875
439.25	289.25	23.078125
74.5	157.0	71.875
419.25	19.6875	113.375
204.875	382.0	95.8125
311.5	124.25	135.0
268.75	84.4375	108.0
107.5	61.25	158.0
425.75	46.78125	183.125
131.0	425.0	30.5625
38.71875	119.0	197.375
319.5	117.75	57.75
210.625	14.8671875	179.75
343.0	382.25	56.53125
249.0	133.375	140.75
10.4375	214.75	51.0625
419.5	237.875	44.84375
68.0625	193.625	67.6875
194.5	17.03125	86.0625
285.0	103.75	135.25
241.375	400.0	146.125
483.5	293.75	138.25
147.5	193.375	67.8125
242.5	187.375	122.0
486.75	34.125	21.671875
146.25	323.75	53.1875
252.5	230.625	78.375
45.9375	493.75	182.875
193.5	34.0	103.5625
284.25	33.8125	75.3125
361.75	207.625	101.0625
213.625	387.75	92.5
206.625	502.25	71.75
221.25	39.90625	173.125
359.25	190.625	86.0625
206.375	30.171875	67.4375
213.25	115.1875	96.8125
29.765625	337.25	136.25
78.625	361.75	60.96875
330.25	310.0	64.375
155.125	473.25	174.125
305.25	54.46875	55.59375
122.25	486.0	220.125
471.5	239.375	55.5
285.75	10.0234375	113.25
421.75	298.75	32.5625
342.5	191.125	96.0
251.375	262.25	106.5625
374.5	258.0	58.71875
284.25	35.875	63.1875
34.46875	313.25	149.25
91.125	153.125	91.3125
189.375	405.75	167.875
265.75	83.8125	64.4375
15.7109375	206.25	112.4375
500.5	12.328125	34.71875
396.0	26.625	118.625
29.875	380.0	63.03125
214.125	34.9375	127.5
115.6875	45.75	28.28125
382.25	40.96875	138.5
251.0	249.125	97.125
339.5	176.625	69.6875
484.25	493.75	33.75
193.375	470.0	191.875
39.65625	320.75	132.75
233.0	237.625	82.8125
86.1875	23.71875	161.25
89.8125	180.625	137.375
88.125	35.9375	55.40625
15.4453125	77.375	230.875
368.5	369.75	76.125
185.75	264.0	108.8125
279.25	249.75	95.6875
148.5	405.0	34.875
241.625	133.0	75.4375
74.5625	30.390625	81.5
295.5	75.1875	159.0
268.75	469.25	42.3125
370.5	390.0	44.5625
206.25	248.625	86.25
432.75	297.75	20.578125
174.75	40.15625	162.5
241.875	181.25	43.59375
129.75	152.875	70.625
46.28125	377.0	182.0
297.25	391.0	142.625
270.0	351.75	128.75
401.0	165.625	28.484375
9.9453125	252.25	261.5
327.75	279.25	86.1875
160.375	432.75	9.78125
132.5	197.0	69.875
159.625	89.75	101.3125
324.0	398.0	61.15625
97.5625	57.34375	154.875
87.375	56.6875	202.5
402.25	126.875	52.125
291.5	59.125	217.75
416.75	7.8828125	147.875
69.5	29.640625	192.75
487.5	93.6875	82.8125
455.5	310.75	16.390625
338.0	306.75	96.875
325.5	426.75	31.421875
196.25	315.75	21.734375
189.625	494.75	70.875
345.75	235.125	151.5
233.5	199.75	26.15625
169.375	110.75	134.125
450.5	395.5	27.296875
121.5625	500.0	91.5
352.5	201.25	113.3125
298.5	410.0	54.4375
109.5	357.0	65.375
251.0	28.40625	206.0
203.625	470.25	60.0
184.75	73.375	97.875
435.75	94.875	70.6875
43.9375	156.375	124.0
79.25	455.0	112.375
77.0	265.0	105.8125
247.375	252.375	55.59375
29.390625	175.375	80.4375
412.25	34.78125	125.25
244.375	188.25	72.9375
386.25	168.125	73.875
505.5	13.2109375	14.046875
211.75	246.0	102.5
147.5	240.875	92.4375
255.625	143.75	125.125
258.25	378.75	106.9375
15.484375	409.0	113.5
289.75	119.9375	113.1875
477.5	478.25	177.5
241.75	373.75	146.875
77.5625	380.75	145.875
25.4375	65.6875	28.359375
93.75	9.6484375	69.8125
391.75	313.5	62.15625
364.75	222.5	126.3125
123.75	29.0	37.15625
72.125	27.9375	10.765625
238.5	347.0	29.46875
136.25	357.0	46.875
355.25	117.125	41.46875
423.0	47.125	160.0
301.75	425.25	37.09375
329.0	445.75	91.5
425.0	78.8125	106.75
136.0	39.125	160.0
155.125	502.75	17.4375
487.0	181.125	7.69140625
176.5	97.6875	126.375
258.75	368.25	139.25
290.75	49.59375	36.03125
271.5	126.625	90.4375
382.75	73.6875	168.75
9.359375	216.375	19.453125
242.75	33.6875	211.375
244.875	364.25	35.96875
35.53125	488.0	26.0
297.5	60.71875	132.75
235.25	61.65625	89.3125
212.625	15.4609375	80.5625
292.25	85.5625	81.375
321.25	377.25	60.03125
184.0	84.9375	118.75
70.0625	130.25	126.4375
277.75	377.75	123.1875
84.25	287.0	10.78125
254.25	495.75	45.8125
141.875	98.875	109.9375
128.25	121.8125	118.875
247.0	271.75	100.375
84.25	384.75	6.4140625
421.0	161.25	56.625
304.0	302.75	105.5625
401.25	232.875	50.21875
202.375	16.390625	104.625
56.1875	112.1875	33.59375
492.25	119.125	70.75
171.375	205.625	47.0
442.5	79.6875	83.875
414.0	94.75	18.375
156.125	61.15625	197.25
308.25	302.0	116.5
350.25	247.75	62.09375
211.75	21.15625	99.3125
397.5	284.0	42.59375
325.5	17.15625	95.8125
269.0	95.4375	74.9375
136.375	395.0	35.09375
367.75	286.25	191.75
487.25	502.5	41.53125
199.0	307.0	44.59375
74.375	104.25	108.8125
468.0	380.0	19.734375
368.5	346.75	20.609375
408.0	288.0	42.40625
29.140625	476.25	70.75
489.0	20.921875	183.0
288.25	8.390625	67.5
351.75	191.375	64.4375
21.578125	235.25	121.0
409.5	39.84375	159.875
157.125	257.25	66.25
125.25	253.125	70.625
357.5	230.25	71.0
454.25	230.625	60.15625
335.5	504.25	186.25
317.75	262.5	96.875
352.0	132.0	224.625
68.4375	38.84375	60.0625
412.75	400.25	53.3125
311.75	445.75	106.875
355.75	399.0	61.15625
283.25	123.25	140.375
490.0	109.6875	104.6875
174.375	246.625	22.0
192.0	108.8125	131.75
186.375	420.0	65.25
308.5	437.75	65.375
203.5	318.25	43.46875
287.5	26.3125	84.75
270.5	362.25	43.65625
483.25	417.75	255.875
217.5	305.0	38.25
83.625	31.375	146.0
129.375	129.25	128.375
108.3125	52.1875	64.375
351.5	345.25	45.84375
126.6875	234.0	156.875
441.25	58.6875	91.5625
198.5	203.875	36.1875
456.5	482.75	204.875
11.6484375	188.125	31.703125
393.0	163.0	65.1875
308.0	291.75	103.375
270.25	138.0	136.25
12.09375	476.25	228.75
105.625	454.75	53.28125
56.34375	185.75	38.40625
90.5	20.921875	87.125
52.46875	130.375	19.59375
302.5	284.25	73.0
385.25	179.875	9.9921875
134.0	349.25	85.0625
485.5	406.75	226.625
351.25	455.0	70.8125
260.75	477.0	41.375
197.875	326.25	19.765625
431.0	323.5	17.28125
220.5	342.0	33.96875
365.25	165.125	127.375
102.4375	409.25	56.59375
306.5	57.3125	148.25
170.5	48.9375	144.75
163.0	434.75	94.9375
413.5	84.3125	135.25
253.125	311.0	11.8515625
147.375	426.25	50.125
270.5	255.125	101.1875
289.0	321.75	94.875
91.25	460.75	29.5
194.625	28.6875	82.875
401.25	235.5	39.03125
361.75	363.0	56.71875
279.5	112.25	140.625
255.625	136.125	73.875
195.625	503.75	71.8125
195.0	45.25	161.125
143.625	314.25	90.4375
243.625	249.125	66.375
331.25	395.75	70.875
327.5	93.0	153.5
424.5	173.875	105.875
460.0	504.75	63.15625
159.0	342.0	84.125
459.5	299.75	33.875
17.953125	399.75	149.5
73.8125	361.75	42.46875
335.0	41.1875	39.21875
350.25	503.0	121.9375
87.3125	29.171875	216.625
443.5	191.125	168.75
232.5	63.21875	78.5
7.3359375	165.375	157.875
427.5	154.25	112.0
498.0	456.0	234.25
165.375	235.0	99.25
88.625	488.25	105.5625
384.25	421.0	33.71875
9.4296875	341.75	72.125
188.875	53.875	98.9375
423.25	362.25	42.28125
309.5	105.875	178.875
127.5	232.875	146.0
229.75	262.25	187.5
490.75	21.28125	171.25
380.0	449.75	54.5625
329.25	172.875	70.75
164.5	423.25	15.140625
117.8125	235.75	61.09375
306.25	269.25	49.0625
104.5	370.0	72.0
321.25	227.375	112.25
493.75	456.75	225.5
249.5	182.0	129.75
264.5	455.0	23.875
30.3125	63.125	110.0
43.4375	480.5	197.25
63.1875	454.25	33.9375
387.25	318.25	42.5
486.75	403.0	139.375
260.0	436.25	33.875
338.0	497.75	167.625
22.5	457.25	11.8359375
142.625	139.875	117.8125
265.5	367.0	15.2890625
124.5	497.0	217.75
242.375	242.875	56.625
221.375	71.0	244.125
445.75	371.5	25.9375
481.5	44.15625	20.640625
223.125	410.0	13.1875
436.0	304.75	10.8671875
61.0	325.0	221.0
433.5	271.25	30.5625
117.4375	6.984375	70.875
221.125	263.25	85.9375
132.75	399.75	25.03125
318.75	272.25	102.5625
31.484375	490.75	37.0
312.5	54.125	121.125
118.1875	58.5625	159.875
294.0	166.25	46.875
44.21875	69.0625	26.3125
354.0	23.921875	181.875
286.75	337.5	123.0
16.1875	237.125	61.84375
244.25	344.5	118.625
143.5	398.0	27.015625
142.5	502.25	17.453125
404.5	281.0	51.40625
228.0	215.375	27.078125
202.375	469.75	17.203125
436.0	153.0	40.3125
337.5	446.0	83.6875
326.75	47.875	121.875
408.75	107.3125	206.875
149.625	395.75	49.0625
438.25	304.0	128.75
12.125	337.0	82.9375
18.65625	463.25	76.1875
426.75	279.5	26.265625
130.375	503.75	224.5
342.0	150.25	68.75
305.75	12.625	81.6875
416.75	381.0	46.78125
228.375	263.75	166.75
42.125	181.5	43.625
439.0	97.25	27.125
482.5	397.25	21.671875
382.5	441.0	35.96875
254.375	161.5	105.6875
272.5	402.75	128.5
428.5	21.6875	212.5
39.125	240.875	29.328125
310.0	424.75	29.234375
305.5	80.0	14.0703125
406.0	184.0	90.4375
211.25	451.0	206.875
242.375	169.125	70.6875
310.0	428.0	58.71875
140.75	102.75	121.0
97.625	476.75	160.0
104.5	71.9375	154.75
229.375	9.953125	104.625
333.5	89.3125	126.1875
81.25	54.34375	161.375
223.5	383.25	94.75
348.75	173.375	102.5
204.125	475.25	80.5
173.25	438.25	98.0
351.25	38.625	128.25
71.5	48.03125	66.625
6.27734375	177.125	61.1875
222.25	335.25	44.75
252.5	38.625	200.5
177.25	93.8125	114.5
461.25	163.125	93.5625
201.5	16.96875	150.5
85.125	151.75	101.25
289.0	114.75	135.25
398.5	70.25	92.6875
219.125	303.25	20.609375
246.375	105.625	109.8125
391.0	284.25	22.96875
87.0	143.625	119.8125
481.0	129.875	60.75
421.5	159.25	120.8125
342.0	496.75	71.8125
300.5	442.25	33.6875
156.0	216.875	165.625
434.75	421.25	87.125
383.75	248.75	68.5
446.25	262.75	13.046875
148.75	120.875	146.0
170.25	479.0	190.625
264.5	498.0	50.21875
284.75	84.75	234.125
70.0	11.8515625	34.75
380.75	414.25	43.53125
432.5	275.0	41.28125
336.25	18.90625	92.5
256.5	73.1875	101.375
41.4375	381.75	7.69140625
170.0	24.671875	158.25
125.375	244.125	14.0859375
320.0	70.9375	142.75
417.25	182.875	102.625
205.75	143.875	130.875
45.59375	359.75	182.75
234.375	98.25	95.75
334.25	198.375	92.8125
354.5	165.0	64.1875
435.0	58.75	111.0
400.25	150.75	79.4375
220.375	240.0	98.1875
302.0	389.75	71.9375
217.375	480.0	132.875
461.5	277.0	49.0
383.25	240.5	59.9375
216.0	238.875	120.875
80.0	242.25	220.0
266.25	151.75	163.25
155.625	224.875	174.375
303.5	291.75	91.625
231.5	202.0	143.75
417.0	368.75	20.484375
356.75	373.25	58.875
7.0625	260.0	81.75
435.75	286.0	43.59375
168.625	490.5	46.75
44.625	56.9375	203.875
251.375	389.75	160.125
158.0	46.84375	204.875
329.75	78.4375	126.125
279.5	289.75	69.5
7.39453125	86.8125	248.375
214.25	172.875	58.78125
217.75	388.25	103.375
364.0	261.25	60.0625
172.75	501.75	37.0
466.5	368.0	99.3125
145.875	234.125	82.625
277.25	486.0	73.125
281.5	209.25	122.3125
405.25	276.75	40.1875
62.65625	373.0	83.0
212.625	12.375	91.625
267.5	263.25	54.28125
210.0	219.0	31.53125
495.0	42.53125	37.25
416.0	44.875	129.625
32.84375	425.5	171.125
316.0	106.5	57.75
253.625	91.125	118.875
342.75	41.0	99.3125
173.5	217.0	45.90625
223.125	395.0	157.0
46.4375	5.89453125	53.40625
348.25	264.0	76.5
228.875	288.5	28.390625
212.5	135.125	132.0
37.15625	430.75	101.25
337.5	266.75	75.25
105.5	159.875	37.03125
76.25	490.0	233.125
222.75	393.25	88.3125
434.75	53.8125	122.0
403.5	86.25	140.375
39.5	492.75	58.6875
435.75	165.0	28.25
467.25	79.9375	162.125
156.5	268.25	42.4375
495.5	409.75	94.5625
296.5	381.0	125.125
45.71875	500.75	63.3125
144.875	409.75	24.109375
481.25	112.1875	87.0
308.75	479.25	131.625
179.375	492.25	202.5
293.0	153.125	69.8125
325.25	62.34375	148.375
128.75	483.75	28.421875
105.5625	385.75	23.78125
9.96875	379.0	203.875
479.5	83.1875	99.3125
291.0	469.75	77.5
504.25	43.78125	12.1796875
146.125	224.0	72.9375
226.125	209.25	9.9609375
125.6875	197.875	50.3125
377.75	500.5	128.75
135.375	152.75	100.375
205.875	135.25	122.9375
5.796875	344.25	41.3125
268.0	378.25	10.828125
409.5	321.5	29.46875
499.75	405.0	103.6875
135.5	300.0	93.5625
204.5	21.390625	139.625
291.5	391.0	126.375
33.53125	394.75	21.640625
348.25	83.0	115.375
221.875	258.5	6.38671875
318.5	95.5625	125.125
35.0	306.75	102.375
351.5	15.75	190.75
331.25	58.375	110.0625
17.828125	210.0	43.53125
60.90625	246.875	62.21875
255.0	357.0	154.625
10.3359375	73.9375	16.359375
501.75	226.25	154.75
246.625	233.125	62.15625
184.375	499.75	195.0
278.75	6.171875	60.78125
336.25	209.125	89.125
209.375	253.875	117.5625
242.5	230.0	73.0625
254.5	229.25	99.0
144.75	303.0	88.0625
348.25	290.0	73.125
194.125	5.69140625	90.5
63.71875	11.765625	114.4375
30.515625	328.0	142.875
211.625	9.8046875	103.4375
181.625	404.0	24.90625
248.375	13.5859375	45.75
500.75	145.125	86.0625
483.0	223.625	60.0625
162.625	100.8125	104.5625
310.25	439.0	197.125
233.5	415.75	236.25
20.5625	320.75	181.75
89.0	273.25	144.0
41.40625	61.75	110.0625
40.4375	177.125	64.1875
371.25	416.0	47.9375
9.390625	228.5	60.09375
247.5	19.78125	95.75
95.1875	56.0	175.375
10.578125	195.25	93.5625
156.125	82.0625	109.9375
354.75	63.28125	188.375
71.375	355.0	32.71875
270.5	109.8125	135.0
420.5	368.0	31.484375
192.25	5.88671875	69.625
299.25	172.375	76.0
48.15625	27.703125	227.75
398.75	450.0	55.59375
35.96875	377.25	25.03125
138.375	189.625	63.3125
38.90625	342.75	140.75
444.5	31.96875	26.203125
138.625	249.125	56.65625
51.25	10.2890625	212.375
440.25	190.0	83.9375
100.25	115.8125	119.6875
216.625	137.375	121.125
318.75	427.0	50.15625
312.75	309.0	88.3125
174.0	86.4375	124.0
285.25	69.125	59.0625
491.25	287.25	9.703125
320.75	340.25	59.84375
151.625	187.75	174.125
476.0	423.0	41.3125
90.4375	121.9375	70.75
504.75	113.875	137.375
267.0	103.875	112.25
317.25	218.75	104.875
233.5	47.375	135.0
294.75	105.375	118.75
255.375	151.5	100.0625
136.75	219.75	68.5625
95.125	334.25	92.75
29.515625	197.0	127.625
320.25	425.0	98.1875
51.09375	234.0	225.375
454.75	172.0	90.4375
318.75	424.0	21.859375
274.25	134.25	155.875
377.75	121.875	55.6875
401.25	180.25	70.625
394.75	40.3125	100.0625
363.75	15.0078125	210.25
458.75	498.75	32.84375
232.875	419.25	9.7421875
327.5	175.75	58.96875
175.375	77.1875	68.5625
83.625	154.0	124.1875
400.25	410.25	32.65625
359.0	261.75	78.4375
390.0	174.125	19.546875
315.5	310.25	120.8125
209.875	110.625	106.875
411.75	222.0	79.5625
457.5	55.0625	185.0
273.75	379.75	134.0
7.87109375	262.25	266.75
272.5	490.25	51.09375
239.625	496.25	52.15625
415.0	59.71875	21.625
392.75	230.5	44.5625
272.0	95.75	119.0
114.125	29.265625	30.46875
350.75	313.25	91.375
56.6875	400.25	24.0625
439.75	170.875	104.5
237.5	196.875	125.1875
440.75	46.75	92.625
230.5	74.125	75.375
223.875	28.859375	200.375
362.5	251.0	13.984375
116.8125	478.25	226.75
242.875	336.25	45.71875
305.5	82.625	130.75
411.25	216.375	59.8125
422.5	65.9375	151.5
217.5	23.78125	131.75
249.5	350.5	137.125
431.75	183.875	30.328125
206.875	99.125	107.6875
177.0	270.0	80.5
101.5	56.6875	80.8125
253.625	151.625	153.5
177.5	348.0	74.125
97.8125	15.1328125	37.09375
154.125	397.0	28.421875
93.4375	339.75	46.8125
56.21875	175.0	124.0625
415.75	74.0	110.875
169.75	88.5625	96.9375
271.25	145.75	153.75
159.75	443.75	80.6875
334.75	218.125	95.75
275.75	484.75	61.0625
333.25	318.75	57.75
47.46875	447.25	95.8125
128.5	251.0	53.46875
224.5	385.0	177.5
179.5	457.25	97.9375
76.125	21.4375	119.9375
216.5	241.125	132.875
384.25	226.0	75.0625
104.9375	134.25	111.25
252.5	191.875	124.125
188.75	20.84375	77.3125
30.96875	301.0	189.375
408.25	242.0	28.28125
280.25	123.125	96.0
391.25	325.75	33.59375
482.75	494.25	203.875
255.0	139.875	177.5
191.625	297.75	29.484375
198.5	386.75	104.4375
282.5	493.0	55.625
216.25	454.0	58.625
96.0625	175.0	70.8125
348.5	286.25	62.03125
407.5	292.0	53.5
51.25	35.4375	9.6796875
91.4375	138.625	55.5625
274.5	359.25	136.125
250.375	348.75	148.0
185.625	149.25	98.0625
92.5625	156.25	151.375
424.0	177.375	94.8125
320.0	192.875	104.625
54.8125	13.1796875	50.125
8.828125	75.875	212.625
331.75	309.0	106.8125
486.25	23.65625	27.234375
316.0	65.6875	132.75
104.625	251.25	68.5
231.75	402.25	140.75
90.0625	45.625	205.875
236.5	392.0	139.5
251.5	334.25	134.125
104.1875	167.375	68.6875
144.5	46.15625	112.375
89.8125	58.78125	190.625
419.5	226.625	48.90625
443.5	158.375	80.4375
287.75	58.78125	137.5
494.5	77.9375	72.8125
482.75	503.0	182.875
168.75	84.8125	62.09375
264.25	364.0	119.8125
247.375	146.125	17.578125
111.8125	504.25	51.3125
209.75	137.875	112.0625
346.5	385.75	46.5625
72.625	20.078125	52.46875
130.875	134.125	108.8125
17.453125	241.25	41.34375
317.5	447.0	76.3125
504.75	6.93359375	25.09375
467.0	216.0	85.9375
28.515625	194.375	37.90625
423.25	276.25	46.90625
359.5	283.75	64.125
302.5	473.25	123.3125
357.5	336.25	42.375
165.125	491.25	209.0
8.609375	241.25	68.8125
246.5	499.75	135.125
347.75	294.0	84.9375
298.25	110.75	140.625
